ply
format ascii 1.0
element vertex 4581
property float x
property float y
property float z
end_header
25 91 -26
25 91 45
25 92 -26
25 92 45
25 93 -26
25 93 46
25 94 -26
25 94 46
25 95 -26
25 95 47
25 96 -26
25 96 47
25 96 74
25 97 -26
25 97 47
25 98 -26
25 98 47
25 99 -27
25 99 47
25 100 -27
25 100 46
25 101 -38
25 101 -27
25 101 38
25 101 46
25 102 -38
25 102 -28
25 102 38
25 102 45
25 103 -38
25 103 -29
25 103 39
25 104 -38
25 104 -29
25 104 40
25 105 -40
25 105 -30
25 105 38
25 106 -41
25 106 39
25 107 -40
25 107 39
25 108 -41
25 108 -2
25 108 40
25 108 51
25 109 -40
25 109 -2
25 109 42
25 109 46
25 109 52
25 110 -40
25 110 -2
25 110 53
25 111 -39
25 111 -4
25 111 54
25 112 -37
25 112 54
25 113 -36
25 113 -33
25 113 54
25 114 -32
25 114 54
25 115 -32
25 115 53
25 116 -32
25 116 53
25 116 59
25 117 -32
25 117 53
25 117 60
25 118 -33
25 118 -6
25 118 54
25 118 60
25 118 62
25 118 66
25 119 -34
25 119 -6
25 119 61
25 119 66
25 120 -34
25 120 -32
25 120 67
25 121 -32
25 122 -32
25 123 -33
25 124 -31
25 125 -31
25 126 -30
25 127 -31
26 -128 -30
26 -127 -30
26 -126 -30
26 -125 -33
26 -124 -34
26 -123 -35
26 -123 -33
26 -122 -35
26 -122 -33
26 -121 -33
26 -120 -34
26 -120 62
26 -119 -32
26 -119 -6
26 -119 61
26 -119 68
26 -118 -32
26 -118 -6
26 -118 61
26 -118 66
26 -117 -32
26 -117 53
26 -117 61
26 -116 -32
26 -116 53
26 -116 60
26 -115 -32
26 -115 53
26 -115 74
26 -114 -32
26 -114 54
26 -113 -36
26 -113 -33
26 -113 55
26 -112 -37
26 -112 54
26 -111 -39
26 -111 54
26 -110 -39
26 -110 -3
26 -110 54
26 -109 -40
26 -109 -2
26 -109 42
26 -109 46
26 -109 53
26 -108 -41
26 -108 -2
26 -108 40
26 -108 51
26 -107 -40
26 -107 39
26 -106 -41
26 -106 39
26 -105 -40
26 -105 -32
26 -105 38
26 -104 -40
26 -104 -38
26 -104 -31
26 -104 40
26 -103 -38
26 -103 -30
26 -103 39
26 -102 -38
26 -102 -29
26 -102 38
26 -102 44
26 -101 -38
26 -101 -28
26 -101 38
26 -101 46
26 -100 -27
26 -100 46
26 -99 -27
26 -99 47
26 -98 -27
26 -98 47
26 -97 -26
26 -97 47
26 -96 -26
26 -96 47
26 -95 -26
26 -95 47
26 -94 -26
26 -94 47
26 -93 -26
26 -93 46
26 -92 -26
26 -92 46
26 -91 -100
26 -91 -92
26 -91 -26
26 -91 45
26 -90 -102
26 -90 -93
26 -90 -26
26 -90 44
26 -89 -104
26 -89 -93
26 -89 -26
26 -89 3
26 -89 35
26 -89 43
26 -88 -104
26 -88 -93
26 -88 -26
26 -88 3
26 -88 32
26 -88 40
26 -87 -103
26 -87 -27
26 -87 29
26 -86 -103
26 -86 -86
26 -86 -82
26 -86 -27
26 -86 70
26 -85 -103
26 -85 -27
26 -85 71
26 -84 -103
26 -84 -80
26 -84 -28
26 -84 72
26 -83 -107
26 -83 -105
26 -83 -81
26 -83 -29
26 -83 72
26 -82 -106
26 -82 -30
26 -82 64
26 -81 -106
26 -81 -36
26 -81 -31
26 -80 -105
26 -80 -50
26 -80 -46
26 -80 -38
26 -80 -33
26 -79 -104
26 -79 -69
26 -79 -67
26 -79 -53
26 -79 -39
26 -78 -107
26 -78 -105
26 -78 -76
26 -78 -70
26 -77 -108
26 -77 -70
26 -76 -107
26 -75 -106
26 -75 -103
26 -74 -103
26 -73 -104
26 -72 -104
26 -71 -104
26 -70 -104
26 -69 -105
26 -68 -105
26 -67 -104
26 -66 -102
26 -65 -102
26 -64 -101
26 -63 -101
26 -62 -101
26 -61 -101
26 -61 -93
26 -61 66
26 -61 70
26 -61 76
26 -60 -100
26 -60 -93
26 -60 66
26 -60 69
26 -60 76
26 -59 -98
26 -59 -92
26 -59 73
26 -58 -92
26 -57 -90
26 -57 84
26 -57 105
26 -56 -88
26 -56 105
26 -55 -88
26 -55 102
26 -55 106
26 -55 109
26 -55 114
26 -54 -89
26 -54 105
26 -54 109
26 -53 -90
26 -53 105
26 -53 123
26 -52 -91
26 -52 105
26 -52 120
26 -51 -90
26 -51 105
26 -50 -91
26 -50 102
26 -49 -90
26 -49 100
26 -48 -89
26 -48 99
26 -47 -89
26 -46 -90
26 -45 -90
26 -44 -83
26 -43 -83
26 -42 -83
26 -41 -83
26 -41 127
26 -40 -83
26 -39 -83
26 -38 -84
26 -37 -84
26 -36 -82
26 -35 -80
26 -34 -79
26 -33 -78
26 -32 -76
26 -31 -77
26 -30 -76
26 -29 -76
26 -28 -75
26 -27 -75
26 -26 -75
26 -25 -76
26 -25 122
26 -24 -76
26 -24 115
26 -24 118
26 -24 123
26 -23 -77
26 -23 118
26 -23 121
26 -22 -84
26 -22 -79
26 -22 119
26 -21 -84
26 -21 -79
26 -21 119
26 -20 -85
26 -20 -80
26 -19 -85
26 -19 -80
26 -18 -80
26 -17 -80
26 -17 124
26 -16 -78
26 -15 -78
26 -14 -78
26 -13 -78
26 -12 -78
26 -11 -78
26 -10 -81
26 -9 -86
26 -9 -82
26 -8 -86
26 -7 -93
26 -7 -87
26 -6 -90
26 -5 -89
26 -4 -89
26 -3 -100
26 -3 -89
26 -2 -106
26 -2 -91
26 -1 -109
26 0 -108
26 1 -109
26 2 -106
26 2 -91
26 3 -100
26 3 -89
26 4 -89
26 5 -89
26 6 -90
26 7 -93
26 7 -87
26 8 -86
26 9 -86
26 9 -82
26 10 -81
26 11 -78
26 12 -78
26 13 -78
26 14 -78
26 15 -78
26 16 -78
26 17 -80
26 17 124
26 18 -80
26 19 -85
26 19 -80
26 20 -85
26 20 -80
26 21 -84
26 21 -79
26 21 119
26 22 -84
26 22 -79
26 22 119
26 23 -77
26 23 118
26 23 121
26 24 -76
26 24 115
26 24 118
26 24 123
26 25 -76
26 25 122
26 26 -75
26 27 -75
26 28 -75
26 29 -76
26 30 -76
26 31 -77
26 32 -76
26 33 -78
26 34 -79
26 35 -80
26 36 -82
26 37 -84
26 38 -84
26 39 -83
26 40 -83
26 41 -83
26 41 127
26 42 -83
26 43 -83
26 44 -83
26 45 -90
26 46 -90
26 47 -89
26 48 -89
26 48 99
26 49 -90
26 49 100
26 50 -91
26 50 102
26 51 -90
26 51 105
26 52 -91
26 52 105
26 52 120
26 53 -90
26 53 105
26 53 123
26 54 -89
26 54 105
26 54 109
26 55 -88
26 55 102
26 55 106
26 55 109
26 55 114
26 56 -88
26 56 105
26 57 -90
26 57 84
26 57 105
26 58 -92
26 59 -98
26 59 -92
26 59 73
26 60 -100
26 60 -93
26 60 66
26 60 69
26 60 76
26 61 -101
26 61 -93
26 61 66
26 61 70
26 61 76
26 62 -101
26 63 -101
26 64 -101
26 65 -102
26 66 -102
26 67 -104
26 68 -105
26 69 -105
26 70 -104
26 71 -104
26 72 -104
26 73 -104
26 74 -103
26 75 -106
26 75 -103
26 76 -107
26 77 -108
26 77 -70
26 78 -107
26 78 -105
26 78 -76
26 78 -70
26 79 -104
26 79 -69
26 79 -67
26 79 -53
26 79 -39
26 80 -105
26 80 -50
26 80 -46
26 80 -38
26 80 -33
26 81 -106
26 81 -36
26 81 -31
26 82 -106
26 82 -30
26 82 64
26 83 -107
26 83 -105
26 83 -81
26 83 -29
26 83 72
26 84 -103
26 84 -80
26 84 -28
26 84 72
26 85 -103
26 85 -27
26 85 71
26 86 -103
26 86 -86
26 86 -82
26 86 -27
26 86 70
26 87 -103
26 87 -27
26 87 29
26 88 -104
26 88 -93
26 88 -26
26 88 3
26 88 32
26 88 40
26 89 -104
26 89 -93
26 89 -26
26 89 3
26 89 35
26 89 43
26 90 -102
26 90 -93
26 90 -26
26 90 44
26 91 -100
26 91 -92
26 91 -26
26 91 45
26 92 -26
26 92 46
26 93 -26
26 93 46
26 94 -26
26 94 47
26 95 -26
26 95 47
26 96 -26
26 96 47
26 97 -26
26 97 47
26 98 -27
26 98 47
26 99 -27
26 99 47
26 100 -27
26 100 46
26 101 -38
26 101 -28
26 101 38
26 101 46
26 102 -38
26 102 -29
26 102 38
26 102 44
26 103 -38
26 103 -30
26 103 39
26 104 -40
26 104 -38
26 104 -31
26 104 40
26 105 -40
26 105 -32
26 105 38
26 106 -41
26 106 39
26 107 -40
26 107 39
26 108 -41
26 108 -2
26 108 40
26 108 51
26 109 -40
26 109 -2
26 109 42
26 109 46
26 109 53
26 110 -39
26 110 -3
26 110 54
26 111 -39
26 111 54
26 112 -37
26 112 54
26 113 -36
26 113 -33
26 113 55
26 114 -32
26 114 54
26 115 -32
26 115 53
26 115 74
26 116 -32
26 116 53
26 116 60
26 117 -32
26 117 53
26 117 61
26 118 -32
26 118 -6
26 118 61
26 118 66
26 119 -32
26 119 -6
26 119 61
26 119 68
26 120 -34
26 120 62
26 121 -33
26 122 -35
26 122 -33
26 123 -35
26 123 -33
26 124 -34
26 125 -33
26 126 -30
26 127 -30
27 -128 -30
27 -127 -30
27 -126 -30
27 -125 -31
27 -124 -35
27 -123 -36
27 -122 -36
27 -121 -36
27 -120 -33
27 -120 61
27 -119 -32
27 -119 -6
27 -119 61
27 -119 68
27 -118 -32
27 -118 -6
27 -118 61
27 -118 67
27 -117 -32
27 -117 53
27 -117 61
27 -117 66
27 -116 -32
27 -116 53
27 -116 60
27 -115 -32
27 -115 53
27 -115 59
27 -114 -32
27 -114 53
27 -113 -35
27 -113 -33
27 -113 54
27 -112 -35
27 -112 54
27 -111 -38
27 -111 54
27 -111 75
27 -110 -40
27 -110 -3
27 -110 53
27 -109 -40
27 -109 -2
27 -109 42
27 -109 47
27 -109 53
27 -108 -40
27 -108 -2
27 -108 40
27 -108 52
27 -107 -41
27 -107 40
27 -106 -41
27 -106 39
27 -105 -40
27 -105 38
27 -104 -40
27 -104 -38
27 -104 -32
27 -104 39
27 -103 -38
27 -103 -30
27 -103 40
27 -102 -38
27 -102 -29
27 -102 39
27 -101 -38
27 -101 -29
27 -101 38
27 -101 45
27 -100 -28
27 -100 38
27 -100 40
27 -100 46
27 -99 -27
27 -99 47
27 -98 -27
27 -98 47
27 -97 -26
27 -97 47
27 -96 -26
27 -96 47
27 -95 -26
27 -95 47
27 -94 -26
27 -94 47
27 -93 -26
27 -93 46
27 -92 -26
27 -92 46
27 -91 -26
27 -91 45
27 -90 -102
27 -90 -92
27 -90 -26
27 -90 17
27 -90 24
27 -90 37
27 -90 45
27 -89 -104
27 -89 -94
27 -89 -26
27 -89 19
27 -89 34
27 -89 42
27 -88 -104
27 -88 -93
27 -88 -26
27 -88 32
27 -87 -103
27 -87 -94
27 -87 -87
27 -87 -27
27 -87 27
27 -86 -102
27 -86 -27
27 -85 -103
27 -85 -27
27 -85 70
27 -84 -106
27 -84 -102
27 -84 -28
27 -84 73
27 -83 -107
27 -83 -80
27 -83 -29
27 -82 -106
27 -82 -43
27 -82 -30
27 -82 62
27 -82 64
27 -81 -104
27 -81 -48
27 -81 -46
27 -81 -44
27 -81 -37
27 -81 -31
27 -80 -104
27 -80 -50
27 -80 -38
27 -79 -104
27 -79 -70
27 -79 -57
27 -79 -54
27 -79 -40
27 -78 -106
27 -78 -104
27 -78 -76
27 -78 -71
27 -77 -108
27 -76 -107
27 -75 -106
27 -75 -102
27 -74 -103
27 -73 -104
27 -72 -103
27 -71 -103
27 -70 -105
27 -69 -104
27 -69 -96
27 -68 -104
27 -68 -100
27 -68 -96
27 -67 -103
27 -67 -96
27 -66 -96
27 -65 -101
27 -64 -101
27 -64 -99
27 -63 -100
27 -62 -101
27 -62 76
27 -61 -100
27 -61 66
27 -61 69
27 -61 75
27 -60 -99
27 -60 65
27 -60 69
27 -60 72
27 -60 75
27 -59 -96
27 -59 -93
27 -59 83
27 -58 -92
27 -58 83
27 -57 -91
27 -56 -88
27 -56 111
27 -55 -89
27 -55 109
27 -54 -91
27 -54 105
27 -54 109
27 -53 -91
27 -53 105
27 -53 123
27 -52 -91
27 -52 106
27 -52 119
27 -51 -90
27 -51 101
27 -50 -92
27 -50 98
27 -49 -92
27 -49 97
27 -48 -93
27 -48 96
27 -47 -90
27 -46 -90
27 -45 -88
27 -44 -86
27 -43 -88
27 -43 -86
27 -42 -83
27 -41 -83
27 -40 -84
27 -39 -85
27 -38 -85
27 -37 -83
27 -36 -79
27 -35 -78
27 -34 -79
27 -33 -79
27 -32 -79
27 -31 -78
27 -30 -77
27 -29 -76
27 -28 -75
27 -27 -75
27 -26 -75
27 -25 -76
27 -24 -76
27 -24 116
27 -23 -76
27 -23 116
27 -23 122
27 -22 -77
27 -21 -77
27 -21 118
27 -20 -77
27 -19 -77
27 -19 122
27 -18 -78
27 -18 123
27 -17 -78
27 -16 -78
27 -15 -77
27 -14 -77
27 -13 -77
27 -12 -78
27 -11 -78
27 -10 -81
27 -10 119
27 -9 -86
27 -9 -81
27 -8 -91
27 -8 -85
27 -7 -92
27 -7 -86
27 -6 -92
27 -5 -89
27 -4 -89
27 -3 -91
27 -2 -107
27 -2 -92
27 -1 -109
27 -1 -107
27 0 -107
27 1 -109
27 1 -107
27 2 -107
27 2 -92
27 3 -91
27 4 -89
27 5 -89
27 6 -92
27 7 -92
27 7 -86
27 8 -91
27 8 -85
27 9 -86
27 9 -81
27 10 -81
27 10 119
27 11 -78
27 12 -78
27 13 -77
27 14 -77
27 15 -77
27 16 -78
27 17 -78
27 18 -78
27 18 123
27 19 -77
27 19 122
27 20 -77
27 21 -77
27 21 118
27 22 -77
27 23 -76
27 23 116
27 23 122
27 24 -76
27 24 116
27 25 -76
27 26 -75
27 27 -75
27 28 -75
27 29 -76
27 30 -77
27 31 -78
27 32 -79
27 33 -79
27 34 -79
27 35 -78
27 36 -79
27 37 -83
27 38 -85
27 39 -85
27 40 -84
27 41 -83
27 42 -83
27 43 -88
27 43 -86
27 44 -86
27 45 -88
27 46 -90
27 47 -90
27 48 -93
27 48 96
27 49 -92
27 49 97
27 50 -92
27 50 98
27 51 -90
27 51 101
27 52 -91
27 52 106
27 52 119
27 53 -91
27 53 105
27 53 123
27 54 -91
27 54 105
27 54 109
27 55 -89
27 55 109
27 56 -88
27 56 111
27 57 -91
27 58 -92
27 58 83
27 59 -96
27 59 -93
27 59 83
27 60 -99
27 60 65
27 60 69
27 60 72
27 60 75
27 61 -100
27 61 66
27 61 69
27 61 75
27 62 -101
27 62 76
27 63 -100
27 64 -101
27 64 -99
27 65 -101
27 66 -96
27 67 -103
27 67 -96
27 68 -104
27 68 -100
27 68 -96
27 69 -104
27 69 -96
27 70 -105
27 71 -103
27 72 -103
27 73 -104
27 74 -103
27 75 -106
27 75 -102
27 76 -107
27 77 -108
27 78 -106
27 78 -104
27 78 -76
27 78 -71
27 79 -104
27 79 -70
27 79 -57
27 79 -54
27 79 -40
27 80 -104
27 80 -50
27 80 -38
27 81 -104
27 81 -48
27 81 -46
27 81 -44
27 81 -37
27 81 -31
27 82 -106
27 82 -43
27 82 -30
27 82 62
27 82 64
27 83 -107
27 83 -80
27 83 -29
27 84 -106
27 84 -102
27 84 -28
27 84 73
27 85 -103
27 85 -27
27 85 70
27 86 -102
27 86 -27
27 87 -103
27 87 -94
27 87 -87
27 87 -27
27 87 27
27 88 -104
27 88 -93
27 88 -26
27 88 32
27 89 -104
27 89 -94
27 89 -26
27 89 19
27 89 34
27 89 42
27 90 -102
27 90 -92
27 90 -26
27 90 17
27 90 24
27 90 37
27 90 45
27 91 -26
27 91 45
27 92 -26
27 92 46
27 93 -26
27 93 46
27 94 -26
27 94 47
27 95 -26
27 95 47
27 96 -26
27 96 47
27 97 -26
27 97 47
27 98 -27
27 98 47
27 99 -27
27 99 47
27 100 -28
27 100 38
27 100 40
27 100 46
27 101 -38
27 101 -29
27 101 38
27 101 45
27 102 -38
27 102 -29
27 102 39
27 103 -38
27 103 -30
27 103 40
27 104 -40
27 104 -38
27 104 -32
27 104 39
27 105 -40
27 105 38
27 106 -41
27 106 39
27 107 -41
27 107 40
27 108 -40
27 108 -2
27 108 40
27 108 52
27 109 -40
27 109 -2
27 109 42
27 109 47
27 109 53
27 110 -40
27 110 -3
27 110 53
27 111 -38
27 111 54
27 111 75
27 112 -35
27 112 54
27 113 -35
27 113 -33
27 113 54
27 114 -32
27 114 53
27 115 -32
27 115 53
27 115 59
27 116 -32
27 116 53
27 116 60
27 117 -32
27 117 53
27 117 61
27 117 66
27 118 -32
27 118 -6
27 118 61
27 118 67
27 119 -32
27 119 -6
27 119 61
27 119 68
27 120 -33
27 120 61
27 121 -36
27 122 -36
27 123 -36
27 124 -35
27 125 -31
27 126 -30
27 127 -30
28 -128 -31
28 -127 -30
28 -126 -31
28 -125 -31
28 -125 -9
28 -124 -36
28 -123 -36
28 -122 -36
28 -121 -35
28 -120 -33
28 -120 61
28 -119 -32
28 -119 61
28 -119 68
28 -118 -33
28 -118 -6
28 -118 61
28 -118 66
28 -118 68
28 -117 -32
28 -117 -6
28 -117 54
28 -117 60
28 -117 66
28 -116 -32
28 -116 53
28 -116 59
28 -115 -32
28 -115 53
28 -115 59
28 -114 -32
28 -114 53
28 -113 -33
28 -113 54
28 -112 -34
28 -112 54
28 -111 -38
28 -111 -36
28 -111 54
28 -110 -39
28 -110 -3
28 -110 53
28 -109 -40
28 -109 -2
28 -109 47
28 -109 53
28 -109 75
28 -108 -40
28 -108 -2
28 -108 41
28 -108 52
28 -107 -41
28 -107 -1
28 -107 40
28 -107 50
28 -106 -41
28 -106 40
28 -105 -40
28 -105 40
28 -104 -40
28 -104 -38
28 -104 -33
28 -104 39
28 -103 -38
28 -103 -32
28 -103 40
28 -102 -38
28 -102 -31
28 -102 39
28 -101 -38
28 -101 -30
28 -101 38
28 -101 45
28 -100 -28
28 -100 38
28 -100 46
28 -99 -28
28 -99 47
28 -98 -27
28 -98 47
28 -97 -26
28 -97 47
28 -96 -26
28 -96 47
28 -95 -26
28 -95 47
28 -94 -26
28 -94 47
28 -93 -26
28 -93 47
28 -92 -26
28 -92 46
28 -91 -26
28 -91 11
28 -91 28
28 -91 38
28 -91 46
28 -90 -101
28 -90 -26
28 -90 13
28 -90 36
28 -90 45
28 -89 -103
28 -89 -94
28 -89 -26
28 -89 14
28 -89 34
28 -88 -104
28 -88 -93
28 -88 -26
28 -87 -103
28 -87 -94
28 -87 -26
28 -86 -103
28 -86 -99
28 -86 -27
28 -85 -103
28 -85 -27
28 -84 -107
28 -84 -102
28 -84 -28
28 -84 70
28 -84 73
28 -83 -107
28 -83 -80
28 -83 -78
28 -83 -29
28 -83 62
28 -83 64
28 -83 66
28 -82 -106
28 -82 -46
28 -82 -44
28 -82 -42
28 -82 -36
28 -82 -30
28 -82 64
28 -82 66
28 -81 -104
28 -81 -48
28 -81 -37
28 -80 -105
28 -80 -50
28 -80 -38
28 -79 -105
28 -79 -70
28 -79 -63
28 -79 -56
28 -79 -52
28 -78 -104
28 -78 -76
28 -78 -71
28 -77 -104
28 -76 -102
28 -75 -101
28 -74 -101
28 -73 -102
28 -72 -102
28 -71 -102
28 -71 -96
28 -70 -101
28 -70 -96
28 -69 -96
28 -68 -96
28 -67 -96
28 -66 -96
28 -65 -96
28 -64 -96
28 -63 -99
28 -62 -98
28 -62 76
28 -61 -98
28 -61 65
28 -61 69
28 -61 74
28 -61 82
28 -60 -98
28 -60 60
28 -60 65
28 -60 69
28 -60 72
28 -60 74
28 -60 82
28 -59 -95
28 -59 -93
28 -59 81
28 -58 -92
28 -57 -93
28 -57 112
28 -56 -93
28 -56 111
28 -55 -93
28 -55 109
28 -54 -91
28 -54 108
28 -53 -91
28 -53 99
28 -53 108
28 -53 122
28 -52 -93
28 -52 98
28 -52 107
28 -51 -92
28 -51 96
28 -50 -93
28 -50 95
28 -49 -93
28 -49 95
28 -48 -93
28 -47 -93
28 -46 -93
28 -45 -91
28 -44 -89
28 -43 -89
28 -42 -85
28 -41 -85
28 -40 -85
28 -39 -85
28 -38 -84
28 -37 -82
28 -37 -79
28 -36 -79
28 -35 -79
28 -34 -78
28 -33 -79
28 -32 -79
28 -32 125
28 -31 -77
28 -31 123
28 -30 -76
28 -29 -76
28 -28 -76
28 -27 -75
28 -26 -75
28 -25 -76
28 -24 -76
28 -23 -76
28 -22 -76
28 -21 -77
28 -21 125
28 -20 -77
28 -20 122
28 -20 126
28 -19 -77
28 -19 121
28 -18 -77
28 -18 122
28 -17 -77
28 -16 -77
28 -15 -77
28 -15 124
28 -14 -77
28 -13 -77
28 -12 -77
28 -11 -78
28 -10 -80
28 -9 -86
28 -9 -81
28 -8 -85
28 -7 -93
28 -7 -85
28 -6 -92
28 -5 -90
28 -4 -91
28 -4 110
28 -3 -92
28 -2 -107
28 -2 -93
28 -1 -108
28 -1 -94
28 0 -109
28 1 -108
28 1 -94
28 2 -107
28 2 -93
28 3 -92
28 4 -91
28 4 110
28 5 -90
28 6 -92
28 7 -93
28 7 -85
28 8 -85
28 9 -86
28 9 -81
28 10 -80
28 11 -78
28 12 -77
28 13 -77
28 14 -77
28 15 -77
28 15 124
28 16 -77
28 17 -77
28 18 -77
28 18 122
28 19 -77
28 19 121
28 20 -77
28 20 122
28 20 126
28 21 -77
28 21 125
28 22 -76
28 23 -76
28 24 -76
28 25 -76
28 26 -75
28 27 -75
28 28 -76
28 29 -76
28 30 -76
28 31 -77
28 31 123
28 32 -79
28 32 125
28 33 -79
28 34 -78
28 35 -79
28 36 -79
28 37 -82
28 37 -79
28 38 -84
28 39 -85
28 40 -85
28 41 -85
28 42 -85
28 43 -89
28 44 -89
28 45 -91
28 46 -93
28 47 -93
28 48 -93
28 49 -93
28 49 95
28 50 -93
28 50 95
28 51 -92
28 51 96
28 52 -93
28 52 98
28 52 107
28 53 -91
28 53 99
28 53 108
28 53 122
28 54 -91
28 54 108
28 55 -93
28 55 109
28 56 -93
28 56 111
28 57 -93
28 57 112
28 58 -92
28 59 -95
28 59 -93
28 59 81
28 60 -98
28 60 60
28 60 65
28 60 69
28 60 72
28 60 74
28 60 82
28 61 -98
28 61 65
28 61 69
28 61 74
28 61 82
28 62 -98
28 62 76
28 63 -99
28 64 -96
28 65 -96
28 66 -96
28 67 -96
28 68 -96
28 69 -96
28 70 -101
28 70 -96
28 71 -102
28 71 -96
28 72 -102
28 73 -102
28 74 -101
28 75 -101
28 76 -102
28 77 -104
28 78 -104
28 78 -76
28 78 -71
28 79 -105
28 79 -70
28 79 -63
28 79 -56
28 79 -52
28 80 -105
28 80 -50
28 80 -38
28 81 -104
28 81 -48
28 81 -37
28 82 -106
28 82 -46
28 82 -44
28 82 -42
28 82 -36
28 82 -30
28 82 64
28 82 66
28 83 -107
28 83 -80
28 83 -78
28 83 -29
28 83 62
28 83 64
28 83 66
28 84 -107
28 84 -102
28 84 -28
28 84 70
28 84 73
28 85 -103
28 85 -27
28 86 -103
28 86 -99
28 86 -27
28 87 -103
28 87 -94
28 87 -26
28 88 -104
28 88 -93
28 88 -26
28 89 -103
28 89 -94
28 89 -26
28 89 14
28 89 34
28 90 -101
28 90 -26
28 90 13
28 90 36
28 90 45
28 91 -26
28 91 11
28 91 28
28 91 38
28 91 46
28 92 -26
28 92 46
28 93 -26
28 93 47
28 94 -26
28 94 47
28 95 -26
28 95 47
28 96 -26
28 96 47
28 97 -26
28 97 47
28 98 -27
28 98 47
28 99 -28
28 99 47
28 100 -28
28 100 38
28 100 46
28 101 -38
28 101 -30
28 101 38
28 101 45
28 102 -38
28 102 -31
28 102 39
28 103 -38
28 103 -32
28 103 40
28 104 -40
28 104 -38
28 104 -33
28 104 39
28 105 -40
28 105 40
28 106 -41
28 106 40
28 107 -41
28 107 -1
28 107 40
28 107 50
28 108 -40
28 108 -2
28 108 41
28 108 52
28 109 -40
28 109 -2
28 109 47
28 109 53
28 109 75
28 110 -39
28 110 -3
28 110 53
28 111 -38
28 111 -36
28 111 54
28 112 -34
28 112 54
28 113 -33
28 113 54
28 114 -32
28 114 53
28 115 -32
28 115 53
28 115 59
28 116 -32
28 116 53
28 116 59
28 117 -32
28 117 -6
28 117 54
28 117 60
28 117 66
28 118 -33
28 118 -6
28 118 61
28 118 66
28 118 68
28 119 -32
28 119 61
28 119 68
28 120 -33
28 120 61
28 121 -35
28 122 -36
28 123 -36
28 124 -36
28 125 -31
28 125 -9
28 126 -31
28 127 -30
29 -128 -31
29 -128 -12
29 -127 -30
29 -126 -30
29 -125 -31
29 -125 -9
29 -124 -36
29 -124 -32
29 -123 -36
29 -122 -36
29 -121 -36
29 -121 -33
29 -120 -34
29 -119 -34
29 -119 61
29 -119 68
29 -118 -33
29 -118 -6
29 -118 61
29 -118 66
29 -117 -33
29 -117 -6
29 -117 -3
29 -117 54
29 -117 62
29 -117 66
29 -116 -31
29 -116 53
29 -116 61
29 -116 71
29 -115 -32
29 -115 53
29 -115 59
29 -114 -32
29 -114 53
29 -113 -33
29 -113 54
29 -112 -34
29 -112 54
29 -111 -38
29 -111 -36
29 -111 53
29 -111 74
29 -110 -39
29 -110 -4
29 -110 53
29 -109 -39
29 -109 -2
29 -109 53
29 -108 -40
29 -108 -2
29 -108 43
29 -108 46
29 -108 52
29 -107 -41
29 -107 -2
29 -107 41
29 -107 51
29 -106 -40
29 -106 40
29 -105 -41
29 -105 40
29 -104 -40
29 -104 -38
29 -104 41
29 -103 -38
29 -103 -33
29 -103 40
29 -103 75
29 -102 -37
29 -102 -32
29 -102 39
29 -102 73
29 -102 75
29 -101 -38
29 -101 -31
29 -101 38
29 -101 45
29 -101 74
29 -100 -30
29 -100 38
29 -100 46
29 -99 -28
29 -99 47
29 -98 -27
29 -98 47
29 -97 -27
29 -97 47
29 -96 -26
29 -96 48
29 -95 -26
29 -95 48
29 -95 71
29 -94 -25
29 -94 47
29 -94 72
29 -93 -25
29 -93 10
29 -93 13
29 -93 30
29 -93 40
29 -93 47
29 -92 -25
29 -92 -1
29 -92 8
29 -92 39
29 -92 47
29 -91 -25
29 -91 -1
29 -91 9
29 -91 38
29 -91 46
29 -90 -100
29 -90 -25
29 -90 10
29 -90 36
29 -90 46
29 -89 -101
29 -89 -92
29 -89 -26
29 -88 -103
29 -88 -100
29 -88 -93
29 -88 -26
29 -87 -103
29 -87 -99
29 -87 -93
29 -87 -26
29 -86 -102
29 -86 -99
29 -86 -94
29 -86 -26
29 -85 -103
29 -85 -99
29 -85 -27
29 -85 62
29 -85 72
29 -84 -101
29 -84 -28
29 -84 62
29 -84 69
29 -84 73
29 -83 -106
29 -83 -101
29 -83 -43
29 -83 -41
29 -83 -33
29 -83 -29
29 -83 64
29 -82 -105
29 -82 -103
29 -82 -46
29 -82 -35
29 -82 -30
29 -82 64
29 -81 -104
29 -81 -59
29 -81 -48
29 -81 -37
29 -80 -105
29 -80 -61
29 -80 -52
29 -80 -49
29 -79 -105
29 -79 -70
29 -78 -104
29 -78 -72
29 -77 -104
29 -76 -102
29 -75 -101
29 -74 -101
29 -73 -99
29 -72 -97
29 -71 -96
29 -70 -96
29 -69 -96
29 -68 -96
29 -67 -96
29 -66 -96
29 -65 -96
29 -64 -96
29 -63 -97
29 -63 76
29 -63 78
29 -62 -97
29 -62 67
29 -62 75
29 -62 81
29 -61 -98
29 -61 65
29 -61 68
29 -61 74
29 -61 81
29 -60 -97
29 -60 60
29 -60 65
29 -60 71
29 -60 73
29 -60 82
29 -59 -96
29 -59 81
29 -58 -95
29 -58 80
29 -57 -94
29 -57 111
29 -56 -93
29 -56 112
29 -55 -93
29 -55 110
29 -54 -94
29 -54 100
29 -54 108
29 -54 118
29 -53 -93
29 -53 97
29 -53 107
29 -52 -93
29 -52 95
29 -52 107
29 -52 124
29 -51 -94
29 -51 94
29 -50 -93
29 -50 93
29 -49 -94
29 -49 93
29 -48 -94
29 -47 -93
29 -46 -92
29 -45 -91
29 -44 -88
29 -43 -88
29 -42 -88
29 -41 -85
29 -40 -83
29 -39 -84
29 -38 -84
29 -37 -80
29 -36 -80
29 -35 -78
29 -34 -81
29 -33 -82
29 -33 -80
29 -32 -78
29 -31 -77
29 -31 124
29 -30 -76
29 -30 124
29 -29 -76
29 -29 124
29 -28 -76
29 -27 -76
29 -26 -75
29 -25 -76
29 -24 -76
29 -23 -76
29 -22 -76
29 -21 -76
29 -20 -76
29 -19 -76
29 -18 -77
29 -18 126
29 -17 -77
29 -17 125
29 -16 -77
29 -16 124
29 -15 -77
29 -15 126
29 -14 -77
29 -13 -77
29 -12 -77
29 -11 -78
29 -10 -80
29 -9 -85
29 -9 -80
29 -8 -85
29 -7 -93
29 -7 -85
29 -6 -92
29 -6 -85
29 -5 -91
29 -4 -91
29 -3 -104
29 -3 -100
29 -3 -98
29 -3 -91
29 -2 -105
29 -2 -91
29 -1 -108
29 -1 -94
29 0 -109
29 1 -108
29 1 -94
29 2 -105
29 2 -91
29 3 -104
29 3 -100
29 3 -98
29 3 -91
29 4 -91
29 5 -91
29 6 -92
29 6 -85
29 7 -93
29 7 -85
29 8 -85
29 9 -85
29 9 -80
29 10 -80
29 11 -78
29 12 -77
29 13 -77
29 14 -77
29 15 -77
29 15 126
29 16 -77
29 16 124
29 17 -77
29 17 125
29 18 -77
29 18 126
29 19 -76
29 20 -76
29 21 -76
29 22 -76
29 23 -76
29 24 -76
29 25 -76
29 26 -75
29 27 -76
29 28 -76
29 29 -76
29 29 124
29 30 -76
29 30 124
29 31 -77
29 31 124
29 32 -78
29 33 -82
29 33 -80
29 34 -81
29 35 -78
29 36 -80
29 37 -80
29 38 -84
29 39 -84
29 40 -83
29 41 -85
29 42 -88
29 43 -88
29 44 -88
29 45 -91
29 46 -92
29 47 -93
29 48 -94
29 49 -94
29 49 93
29 50 -93
29 50 93
29 51 -94
29 51 94
29 52 -93
29 52 95
29 52 107
29 52 124
29 53 -93
29 53 97
29 53 107
29 54 -94
29 54 100
29 54 108
29 54 118
29 55 -93
29 55 110
29 56 -93
29 56 112
29 57 -94
29 57 111
29 58 -95
29 58 80
29 59 -96
29 59 81
29 60 -97
29 60 60
29 60 65
29 60 71
29 60 73
29 60 82
29 61 -98
29 61 65
29 61 68
29 61 74
29 61 81
29 62 -97
29 62 67
29 62 75
29 62 81
29 63 -97
29 63 76
29 63 78
29 64 -96
29 65 -96
29 66 -96
29 67 -96
29 68 -96
29 69 -96
29 70 -96
29 71 -96
29 72 -97
29 73 -99
29 74 -101
29 75 -101
29 76 -102
29 77 -104
29 78 -104
29 78 -72
29 79 -105
29 79 -70
29 80 -105
29 80 -61
29 80 -52
29 80 -49
29 81 -104
29 81 -59
29 81 -48
29 81 -37
29 82 -105
29 82 -103
29 82 -46
29 82 -35
29 82 -30
29 82 64
29 83 -106
29 83 -101
29 83 -43
29 83 -41
29 83 -33
29 83 -29
29 83 64
29 84 -101
29 84 -28
29 84 62
29 84 69
29 84 73
29 85 -103
29 85 -99
29 85 -27
29 85 62
29 85 72
29 86 -102
29 86 -99
29 86 -94
29 86 -26
29 87 -103
29 87 -99
29 87 -93
29 87 -26
29 88 -103
29 88 -100
29 88 -93
29 88 -26
29 89 -101
29 89 -92
29 89 -26
29 90 -100
29 90 -25
29 90 10
29 90 36
29 90 46
29 91 -25
29 91 -1
29 91 9
29 91 38
29 91 46
29 92 -25
29 92 -1
29 92 8
29 92 39
29 92 47
29 93 -25
29 93 10
29 93 13
29 93 30
29 93 40
29 93 47
29 94 -25
29 94 47
29 94 72
29 95 -26
29 95 48
29 95 71
29 96 -26
29 96 48
29 97 -27
29 97 47
29 98 -27
29 98 47
29 99 -28
29 99 47
29 100 -30
29 100 38
29 100 46
29 101 -38
29 101 -31
29 101 38
29 101 45
29 101 74
29 102 -37
29 102 -32
29 102 39
29 102 73
29 102 75
29 103 -38
29 103 -33
29 103 40
29 103 75
29 104 -40
29 104 -38
29 104 41
29 105 -41
29 105 40
29 106 -40
29 106 40
29 107 -41
29 107 -2
29 107 41
29 107 51
29 108 -40
29 108 -2
29 108 43
29 108 46
29 108 52
29 109 -39
29 109 -2
29 109 53
29 110 -39
29 110 -4
29 110 53
29 111 -38
29 111 -36
29 111 53
29 111 74
29 112 -34
29 112 54
29 113 -33
29 113 54
29 114 -32
29 114 53
29 115 -32
29 115 53
29 115 59
29 116 -31
29 116 53
29 116 61
29 116 71
29 117 -33
29 117 -6
29 117 -3
29 117 54
29 117 62
29 117 66
29 118 -33
29 118 -6
29 118 61
29 118 66
29 119 -34
29 119 61
29 119 68
29 120 -34
29 121 -36
29 121 -33
29 122 -36
29 123 -36
29 124 -36
29 124 -32
29 125 -31
29 125 -9
29 126 -30
29 127 -30
30 -128 -31
30 -127 -30
30 -126 -30
30 -125 -30
30 -124 -35
30 -124 -31
30 -123 -35
30 -123 -33
30 -122 -35
30 -122 -32
30 -121 -35
30 -121 -33
30 -120 -32
30 -119 -32
30 -119 67
30 -118 -34
30 -118 -6
30 -118 67
30 -117 -33
30 -117 -6
30 -117 66
30 -116 -31
30 -116 53
30 -116 61
30 -116 65
30 -116 71
30 -115 -32
30 -115 53
30 -115 60
30 -115 71
30 -114 -32
30 -114 53
30 -113 -34
30 -113 54
30 -112 -34
30 -112 54
30 -111 -37
30 -111 53
30 -110 -38
30 -110 53
30 -109 -39
30 -109 -3
30 -109 53
30 -108 -40
30 -108 -3
30 -108 46
30 -108 52
30 -107 -40
30 -107 -2
30 -107 42
30 -107 52
30 -106 -40
30 -106 41
30 -105 -41
30 -105 40
30 -104 -40
30 -104 40
30 -103 -40
30 -103 -37
30 -103 -34
30 -103 40
30 -102 -37
30 -102 -33
30 -102 39
30 -101 -37
30 -101 -32
30 -101 38
30 -101 44
30 -100 -37
30 -100 -31
30 -100 38
30 -100 46
30 -100 75
30 -99 -29
30 -99 47
30 -98 -27
30 -98 47
30 -97 -27
30 -97 48
30 -96 -26
30 -96 48
30 -96 69
30 -95 -26
30 -95 37
30 -95 48
30 -95 73
30 -94 -25
30 -94 7
30 -94 32
30 -94 36
30 -94 41
30 -94 48
30 -94 72
30 -93 -25
30 -93 -2
30 -93 6
30 -93 26
30 -93 40
30 -93 48
30 -93 74
30 -92 -25
30 -92 -2
30 -92 7
30 -92 39
30 -92 47
30 -92 73
30 -91 -25
30 -91 7
30 -91 38
30 -91 47
30 -91 72
30 -91 74
30 -90 -25
30 -90 46
30 -90 73
30 -89 -100
30 -89 -25
30 -88 -99
30 -88 -94
30 -88 -87
30 -88 -26
30 -87 -99
30 -87 -93
30 -87 -85
30 -87 -26
30 -87 71
30 -86 -99
30 -86 -94
30 -86 -26
30 -86 62
30 -85 -98
30 -85 -27
30 -85 62
30 -84 -98
30 -84 -40
30 -84 -28
30 -84 64
30 -84 69
30 -83 -100
30 -83 -44
30 -83 -34
30 -83 -29
30 -83 64
30 -82 -103
30 -82 -58
30 -82 -46
30 -82 -35
30 -82 -30
30 -81 -105
30 -81 -60
30 -81 -47
30 -80 -105
30 -80 -61
30 -80 -50
30 -80 -48
30 -79 -105
30 -79 -72
30 -78 -104
30 -77 -103
30 -76 -102
30 -75 -101
30 -74 -102
30 -73 -100
30 -72 -97
30 -71 -96
30 -70 -96
30 -69 -96
30 -68 -97
30 -67 -96
30 -66 -95
30 -65 -95
30 -64 -96
30 -63 -97
30 -63 75
30 -62 -98
30 -62 66
30 -62 74
30 -62 79
30 -61 -97
30 -61 65
30 -61 74
30 -61 80
30 -60 -98
30 -60 60
30 -60 65
30 -60 68
30 -60 71
30 -60 73
30 -60 80
30 -59 -97
30 -59 80
30 -58 -96
30 -57 -94
30 -56 -94
30 -56 110
30 -55 -94
30 -55 99
30 -55 107
30 -55 110
30 -55 117
30 -54 -93
30 -54 99
30 -54 107
30 -54 118
30 -53 -93
30 -53 94
30 -53 97
30 -53 107
30 -52 -93
30 -52 93
30 -52 125
30 -51 -94
30 -51 92
30 -51 124
30 -50 -94
30 -50 92
30 -49 -94
30 -48 -93
30 -47 -93
30 -46 -91
30 -45 -88
30 -44 -88
30 -43 -87
30 -43 -81
30 -42 -82
30 -41 -82
30 -40 -83
30 -39 -84
30 -38 -84
30 -37 -83
30 -36 -82
30 -35 -83
30 -34 -83
30 -33 -81
30 -32 -82
30 -32 -80
30 -31 -78
30 -30 -77
30 -29 -76
30 -28 -76
30 -27 -76
30 -26 -76
30 -25 -76
30 -24 -76
30 -23 -76
30 -22 -76
30 -21 -76
30 -20 -76
30 -19 -76
30 -18 -76
30 -17 -76
30 -16 -76
30 -15 -76
30 -14 -77
30 -14 125
30 -13 -77
30 -13 125
30 -12 -77
30 -11 -77
30 -10 -78
30 -10 123
30 -9 -85
30 -9 -80
30 -8 -85
30 -8 -80
30 -7 -93
30 -7 -85
30 -6 -92
30 -6 -85
30 -5 -92
30 -4 -91
30 -3 -104
30 -3 -99
30 -3 -91
30 -2 -105
30 -2 -98
30 -2 -92
30 -1 -107
30 -1 -96
30 0 -108
30 0 -94
30 1 -107
30 1 -96
30 2 -105
30 2 -98
30 2 -92
30 3 -104
30 3 -99
30 3 -91
30 4 -91
30 5 -92
30 6 -92
30 6 -85
30 7 -93
30 7 -85
30 8 -85
30 8 -80
30 9 -85
30 9 -80
30 10 -78
30 10 123
30 11 -77
30 12 -77
30 13 -77
30 13 125
30 14 -77
30 14 125
30 15 -76
30 16 -76
30 17 -76
30 18 -76
30 19 -76
30 20 -76
30 21 -76
30 22 -76
30 23 -76
30 24 -76
30 25 -76
30 26 -76
30 27 -76
30 28 -76
30 29 -76
30 30 -77
30 31 -78
30 32 -82
30 32 -80
30 33 -81
30 34 -83
30 35 -83
30 36 -82
30 37 -83
30 38 -84
30 39 -84
30 40 -83
30 41 -82
30 42 -82
30 43 -87
30 43 -81
30 44 -88
30 45 -88
30 46 -91
30 47 -93
30 48 -93
30 49 -94
30 50 -94
30 50 92
30 51 -94
30 51 92
30 51 124
30 52 -93
30 52 93
30 52 125
30 53 -93
30 53 94
30 53 97
30 53 107
30 54 -93
30 54 99
30 54 107
30 54 118
30 55 -94
30 55 99
30 55 107
30 55 110
30 55 117
30 56 -94
30 56 110
30 57 -94
30 58 -96
30 59 -97
30 59 80
30 60 -98
30 60 60
30 60 65
30 60 68
30 60 71
30 60 73
30 60 80
30 61 -97
30 61 65
30 61 74
30 61 80
30 62 -98
30 62 66
30 62 74
30 62 79
30 63 -97
30 63 75
30 64 -96
30 65 -95
30 66 -95
30 67 -96
30 68 -97
30 69 -96
30 70 -96
30 71 -96
30 72 -97
30 73 -100
30 74 -102
30 75 -101
30 76 -102
30 77 -103
30 78 -104
30 79 -105
30 79 -72
30 80 -105
30 80 -61
30 80 -50
30 80 -48
30 81 -105
30 81 -60
30 81 -47
30 82 -103
30 82 -58
30 82 -46
30 82 -35
30 82 -30
30 83 -100
30 83 -44
30 83 -34
30 83 -29
30 83 64
30 84 -98
30 84 -40
30 84 -28
30 84 64
30 84 69
30 85 -98
30 85 -27
30 85 62
30 86 -99
30 86 -94
30 86 -26
30 86 62
30 87 -99
30 87 -93
30 87 -85
30 87 -26
30 87 71
30 88 -99
30 88 -94
30 88 -87
30 88 -26
30 89 -100
30 89 -25
30 90 -25
30 90 46
30 90 73
30 91 -25
30 91 7
30 91 38
30 91 47
30 91 72
30 91 74
30 92 -25
30 92 -2
30 92 7
30 92 39
30 92 47
30 92 73
30 93 -25
30 93 -2
30 93 6
30 93 26
30 93 40
30 93 48
30 93 74
30 94 -25
30 94 7
30 94 32
30 94 36
30 94 41
30 94 48
30 94 72
30 95 -26
30 95 37
30 95 48
30 95 73
30 96 -26
30 96 48
30 96 69
30 97 -27
30 97 48
30 98 -27
30 98 47
30 99 -29
30 99 47
30 100 -37
30 100 -31
30 100 38
30 100 46
30 100 75
30 101 -37
30 101 -32
30 101 38
30 101 44
30 102 -37
30 102 -33
30 102 39
30 103 -40
30 103 -37
30 103 -34
30 103 40
30 104 -40
30 104 40
30 105 -41
30 105 40
30 106 -40
30 106 41
30 107 -40
30 107 -2
30 107 42
30 107 52
30 108 -40
30 108 -3
30 108 46
30 108 52
30 109 -39
30 109 -3
30 109 53
30 110 -38
30 110 53
30 111 -37
30 111 53
30 112 -34
30 112 54
30 113 -34
30 113 54
30 114 -32
30 114 53
30 115 -32
30 115 53
30 115 60
30 115 71
30 116 -31
30 116 53
30 116 61
30 116 65
30 116 71
30 117 -33
30 117 -6
30 117 66
30 118 -34
30 118 -6
30 118 67
30 119 -32
30 119 67
30 120 -32
30 121 -35
30 121 -33
30 122 -35
30 122 -32
30 123 -35
30 123 -33
30 124 -35
30 124 -31
30 125 -30
30 126 -30
30 127 -30
31 -128 -31
31 -128 -13
31 -128 -10
31 -127 -30
31 -126 -30
31 -125 -30
31 -124 -33
31 -123 -31
31 -122 -31
31 -121 -33
31 -120 -32
31 -119 -31
31 -119 67
31 -118 -31
31 -118 -6
31 -118 67
31 -117 -31
31 -117 -6
31 -117 66
31 -116 -31
31 -116 53
31 -116 65
31 -116 72
31 -115 -32
31 -115 53
31 -115 61
31 -115 71
31 -114 -33
31 -114 53
31 -113 -34
31 -113 54
31 -112 -35
31 -112 54
31 -111 -36
31 -111 53
31 -110 -38
31 -110 -36
31 -110 53
31 -109 -39
31 -109 -3
31 -109 53
31 -108 -40
31 -108 -3
31 -108 47
31 -108 53
31 -107 -40
31 -107 -3
31 -107 43
31 -107 52
31 -106 -40
31 -106 41
31 -106 50
31 -105 -40
31 -105 40
31 -105 42
31 -104 -40
31 -104 41
31 -103 -40
31 -103 -37
31 -103 -34
31 -103 41
31 -102 -37
31 -102 -33
31 -102 39
31 -101 -37
31 -101 -32
31 -101 38
31 -101 44
31 -100 -31
31 -100 38
31 -100 45
31 -99 -30
31 -99 46
31 -99 75
31 -98 -28
31 -98 47
31 -97 -26
31 -97 48
31 -97 72
31 -96 -26
31 -96 48
31 -96 74
31 -95 -25
31 -95 6
31 -95 35
31 -95 41
31 -95 48
31 -94 -25
31 -94 -2
31 -94 5
31 -94 31
31 -94 41
31 -94 48
31 -93 -25
31 -93 -3
31 -93 5
31 -93 27
31 -93 40
31 -93 48
31 -92 -25
31 -92 -3
31 -92 5
31 -92 39
31 -92 48
31 -91 -25
31 -91 48
31 -90 -25
31 -90 47
31 -90 63
31 -89 -86
31 -89 -25
31 -89 47
31 -89 63
31 -89 73
31 -88 -99
31 -88 -94
31 -88 -87
31 -88 -25
31 -88 63
31 -87 -98
31 -87 -93
31 -87 -26
31 -87 63
31 -87 71
31 -87 74
31 -86 -99
31 -86 -94
31 -86 -26
31 -86 64
31 -86 71
31 -85 -99
31 -85 -95
31 -85 -39
31 -85 -26
31 -85 64
31 -84 -96
31 -84 -43
31 -84 -41
31 -84 -38
31 -84 -27
31 -84 65
31 -83 -100
31 -83 -55
31 -83 -44
31 -83 -34
31 -83 -29
31 -83 66
31 -82 -102
31 -82 -58
31 -82 -45
31 -82 -35
31 -81 -103
31 -81 -80
31 -81 -60
31 -81 -46
31 -80 -105
31 -80 -69
31 -80 -62
31 -79 -105
31 -79 -72
31 -78 -105
31 -78 -98
31 -78 -77
31 -77 -102
31 -77 -98
31 -76 -101
31 -75 -100
31 -74 -102
31 -73 -102
31 -72 -101
31 -72 -97
31 -71 -100
31 -71 -96
31 -70 -96
31 -69 -97
31 -68 -97
31 -67 -96
31 -66 -96
31 -65 -97
31 -65 -80
31 -64 -97
31 -64 -80
31 -64 78
31 -63 -98
31 -63 -80
31 -63 75
31 -62 -98
31 -62 -80
31 -62 66
31 -62 74
31 -61 -98
31 -61 -80
31 -61 65
31 -61 73
31 -61 80
31 -60 -97
31 -60 -80
31 -60 60
31 -60 64
31 -60 71
31 -60 80
31 -59 -97
31 -59 -80
31 -59 59
31 -59 78
31 -58 -95
31 -58 -89
31 -58 -80
31 -57 -94
31 -57 -89
31 -57 -81
31 -57 109
31 -56 -93
31 -56 -82
31 -56 97
31 -56 109
31 -56 119
31 -55 -93
31 -55 -83
31 -55 97
31 -55 108
31 -55 117
31 -54 -93
31 -54 97
31 -54 108
31 -54 118
31 -53 -93
31 -53 92
31 -53 107
31 -53 116
31 -52 -94
31 -52 91
31 -52 124
31 -51 -94
31 -51 91
31 -50 -94
31 -49 -94
31 -48 -94
31 -47 -93
31 -46 -91
31 -45 -88
31 -45 -82
31 -44 -81
31 -43 -82
31 -42 -82
31 -41 -83
31 -40 -84
31 -39 -85
31 -38 -84
31 -37 -83
31 -36 -84
31 -35 -85
31 -34 -84
31 -33 -82
31 -32 -81
31 -31 -78
31 -30 -77
31 -29 -76
31 -28 -76
31 -27 -76
31 -26 -76
31 -26 126
31 -25 -76
31 -25 126
31 -24 -76
31 -23 -76
31 -22 -76
31 -21 -76
31 -20 -76
31 -19 -76
31 -18 -76
31 -17 -76
31 -16 -76
31 -15 -76
31 -14 -76
31 -14 127
31 -13 -76
31 -12 -77
31 -11 -77
31 -11 123
31 -10 -77
31 -10 122
31 -9 -80
31 -8 -85
31 -8 -80
31 -8 114
31 -7 -93
31 -7 -85
31 -7 119
31 -6 -93
31 -6 -85
31 -5 -92
31 -5 -85
31 -4 -92
31 -4 111
31 -3 -92
31 -2 -105
31 -2 -100
31 -2 -92
31 -1 -108
31 -1 -93
31 0 -109
31 0 -94
31 1 -108
31 1 -93
31 2 -105
31 2 -100
31 2 -92
31 3 -92
31 4 -92
31 4 111
31 5 -92
31 5 -85
31 6 -93
31 6 -85
31 7 -93
31 7 -85
31 7 119
31 8 -85
31 8 -80
31 8 114
31 9 -80
31 10 -77
31 10 122
31 11 -77
31 11 123
31 12 -77
31 13 -76
31 14 -76
31 14 127
31 15 -76
31 16 -76
31 17 -76
31 18 -76
31 19 -76
31 20 -76
31 21 -76
31 22 -76
31 23 -76
31 24 -76
31 25 -76
31 25 126
31 26 -76
31 26 126
31 27 -76
31 28 -76
31 29 -76
31 30 -77
31 31 -78
31 32 -81
31 33 -82
31 34 -84
31 35 -85
31 36 -84
31 37 -83
31 38 -84
31 39 -85
31 40 -84
31 41 -83
31 42 -82
31 43 -82
31 44 -81
31 45 -88
31 45 -82
31 46 -91
31 47 -93
31 48 -94
31 49 -94
31 50 -94
31 51 -94
31 51 91
31 52 -94
31 52 91
31 52 124
31 53 -93
31 53 92
31 53 107
31 53 116
31 54 -93
31 54 97
31 54 108
31 54 118
31 55 -93
31 55 -83
31 55 97
31 55 108
31 55 117
31 56 -93
31 56 -82
31 56 97
31 56 109
31 56 119
31 57 -94
31 57 -89
31 57 -81
31 57 109
31 58 -95
31 58 -89
31 58 -80
31 59 -97
31 59 -80
31 59 59
31 59 78
31 60 -97
31 60 -80
31 60 60
31 60 64
31 60 71
31 60 80
31 61 -98
31 61 -80
31 61 65
31 61 73
31 61 80
31 62 -98
31 62 -80
31 62 66
31 62 74
31 63 -98
31 63 -80
31 63 75
31 64 -97
31 64 -80
31 64 78
31 65 -97
31 65 -80
31 66 -96
31 67 -96
31 68 -97
31 69 -97
31 70 -96
31 71 -100
31 71 -96
31 72 -101
31 72 -97
31 73 -102
31 74 -102
31 75 -100
31 76 -101
31 77 -102
31 77 -98
31 78 -105
31 78 -98
31 78 -77
31 79 -105
31 79 -72
31 80 -105
31 80 -69
31 80 -62
31 81 -103
31 81 -80
31 81 -60
31 81 -46
31 82 -102
31 82 -58
31 82 -45
31 82 -35
31 83 -100
31 83 -55
31 83 -44
31 83 -34
31 83 -29
31 83 66
31 84 -96
31 84 -43
31 84 -41
31 84 -38
31 84 -27
31 84 65
31 85 -99
31 85 -95
31 85 -39
31 85 -26
31 85 64
31 86 -99
31 86 -94
31 86 -26
31 86 64
31 86 71
31 87 -98
31 87 -93
31 87 -26
31 87 63
31 87 71
31 87 74
31 88 -99
31 88 -94
31 88 -87
31 88 -25
31 88 63
31 89 -86
31 89 -25
31 89 47
31 89 63
31 89 73
31 90 -25
31 90 47
31 90 63
31 91 -25
31 91 48
31 92 -25
31 92 -3
31 92 5
31 92 39
31 92 48
31 93 -25
31 93 -3
31 93 5
31 93 27
31 93 40
31 93 48
31 94 -25
31 94 -2
31 94 5
31 94 31
31 94 41
31 94 48
31 95 -25
31 95 6
31 95 35
31 95 41
31 95 48
31 96 -26
31 96 48
31 96 74
31 97 -26
31 97 48
31 97 72
31 98 -28
31 98 47
31 99 -30
31 99 46
31 99 75
31 100 -31
31 100 38
31 100 45
31 101 -37
31 101 -32
31 101 38
31 101 44
31 102 -37
31 102 -33
31 102 39
31 103 -40
31 103 -37
31 103 -34
31 103 41
31 104 -40
31 104 41
31 105 -40
31 105 40
31 105 42
31 106 -40
31 106 41
31 106 50
31 107 -40
31 107 -3
31 107 43
31 107 52
31 108 -40
31 108 -3
31 108 47
31 108 53
31 109 -39
31 109 -3
31 109 53
31 110 -38
31 110 -36
31 110 53
31 111 -36
31 111 53
31 112 -35
31 112 54
31 113 -34
31 113 54
31 114 -33
31 114 53
31 115 -32
31 115 53
31 115 61
31 115 71
31 116 -31
31 116 53
31 116 65
31 116 72
31 117 -31
31 117 -6
31 117 66
31 118 -31
31 118 -6
31 118 67
31 119 -31
31 119 67
31 120 -32
31 121 -33
31 122 -31
31 123 -31
31 124 -33
31 125 -30
31 126 -30
31 127 -30
32 -128 -32
32 -127 -31
32 -127 -11
32 -126 -30
32 -125 -30
32 -124 -30
32 -123 -31
32 -122 -31
32 -121 -33
32 -120 -32
32 -119 -31
32 -118 -31
32 -117 -31
32 -117 -6
32 -117 67
32 -116 -31
32 -116 -7
32 -116 54
32 -116 65
32 -115 -32
32 -115 53
32 -115 64
32 -114 -32
32 -114 53
32 -114 60
32 -113 -34
32 -113 53
32 -112 -34
32 -112 54
32 -111 -36
32 -111 -34
32 -111 53
32 -110 -36
32 -110 -33
32 -110 53
32 -109 -37
32 -109 -3
32 -109 53
32 -108 -39
32 -108 -3
32 -108 47
32 -108 52
32 -107 -39
32 -107 -3
32 -107 44
32 -107 52
32 -106 -40
32 -106 42
32 -106 44
32 -106 51
32 -105 -40
32 -105 42
32 -104 -39
32 -104 40
32 -103 -40
32 -103 -37
32 -103 -34
32 -103 41
32 -102 -37
32 -102 -33
32 -102 40
32 -101 -37
32 -101 -32
32 -101 38
32 -100 -30
32 -100 38
32 -100 45
32 -99 -30
32 -99 38
32 -99 46
32 -99 74
32 -98 -29
32 -98 47
32 -97 -26
32 -97 37
32 -97 48
32 -96 -26
32 -96 6
32 -96 36
32 -96 38
32 -96 42
32 -96 48
32 -95 -25
32 -95 3
32 -95 34
32 -95 41
32 -95 48
32 -94 -25
32 -94 -3
32 -94 3
32 -94 29
32 -94 40
32 -94 48
32 -93 -25
32 -93 -3
32 -93 4
32 -93 26
32 -93 40
32 -93 48
32 -92 -25
32 -92 -4
32 -92 48
32 -91 -25
32 -91 48
32 -91 65
32 -90 -25
32 -90 48
32 -90 64
32 -89 -88
32 -89 -25
32 -89 47
32 -89 64
32 -89 66
32 -88 -90
32 -88 -88
32 -88 -25
32 -88 47
32 -88 66
32 -88 71
32 -87 -93
32 -87 -90
32 -87 -88
32 -87 -25
32 -87 66
32 -87 71
32 -86 -98
32 -86 -93
32 -86 -26
32 -86 66
32 -85 -94
32 -85 -52
32 -85 -26
32 -85 66
32 -84 -96
32 -84 -53
32 -84 -43
32 -84 -27
32 -83 -101
32 -83 -98
32 -83 -55
32 -83 -44
32 -83 -33
32 -83 -28
32 -82 -102
32 -82 -56
32 -82 -44
32 -82 -35
32 -81 -103
32 -81 -101
32 -81 -58
32 -80 -102
32 -80 -99
32 -80 -71
32 -80 -61
32 -79 -98
32 -79 -72
32 -78 -98
32 -78 -76
32 -77 -98
32 -76 -98
32 -75 -102
32 -75 -99
32 -74 -103
32 -73 -102
32 -72 -102
32 -72 -97
32 -72 -95
32 -71 -100
32 -71 -95
32 -70 -95
32 -69 -96
32 -68 -96
32 -67 -96
32 -67 -81
32 -66 -96
32 -66 -81
32 -65 -95
32 -65 -81
32 -64 -96
32 -64 -80
32 -64 78
32 -63 -97
32 -63 -80
32 -63 75
32 -62 -97
32 -62 -91
32 -62 -80
32 -62 66
32 -62 74
32 -61 -97
32 -61 -91
32 -61 -80
32 -61 65
32 -61 73
32 -61 79
32 -60 -96
32 -60 -93
32 -60 -90
32 -60 -80
32 -60 64
32 -60 79
32 -59 -95
32 -59 -93
32 -59 -87
32 -59 -80
32 -59 59
32 -59 63
32 -59 79
32 -58 -81
32 -58 85
32 -58 111
32 -57 -81
32 -57 85
32 -57 97
32 -57 109
32 -56 -92
32 -56 -88
32 -56 -82
32 -56 89
32 -56 95
32 -56 108
32 -55 -90
32 -55 -83
32 -55 89
32 -55 95
32 -55 108
32 -55 118
32 -54 -89
32 -54 92
32 -54 108
32 -53 -92
32 -53 -89
32 -53 91
32 -53 107
32 -53 121
32 -52 -92
32 -51 -92
32 -50 -93
32 -49 -93
32 -48 -92
32 -47 -91
32 -46 -88
32 -46 -83
32 -45 -82
32 -44 -83
32 -43 -83
32 -42 -82
32 -41 -84
32 -40 -85
32 -39 -84
32 -38 -83
32 -37 -84
32 -36 -85
32 -35 -85
32 -34 -84
32 -33 -81
32 -32 -79
32 -31 -78
32 -30 -77
32 -29 -77
32 -28 -76
32 -27 -76
32 -26 -76
32 -25 -76
32 -25 127
32 -24 -76
32 -23 -76
32 -22 -76
32 -21 -76
32 -20 -76
32 -19 -76
32 -18 -76
32 -17 -76
32 -16 -76
32 -15 -76
32 -14 -76
32 -13 -76
32 -12 -76
32 -11 -77
32 -10 -77
32 -10 122
32 -9 -77
32 -8 -84
32 -8 -79
32 -7 -93
32 -7 -85
32 -7 -80
32 -7 120
32 -6 -93
32 -6 -84
32 -6 122
32 -5 -93
32 -5 -84
32 -4 -93
32 -4 -85
32 -4 106
32 -3 -93
32 -3 115
32 -2 -104
32 -2 -101
32 -2 -93
32 -2 115
32 -2 118
32 -1 -107
32 -1 -93
32 0 -108
32 0 -94
32 1 -107
32 1 -93
32 2 -104
32 2 -101
32 2 -93
32 2 115
32 2 118
32 3 -93
32 3 115
32 4 -93
32 4 -85
32 4 106
32 5 -93
32 5 -84
32 6 -93
32 6 -84
32 6 122
32 7 -93
32 7 -85
32 7 -80
32 7 120
32 8 -84
32 8 -79
32 9 -77
32 10 -77
32 10 122
32 11 -77
32 12 -76
32 13 -76
32 14 -76
32 15 -76
32 16 -76
32 17 -76
32 18 -76
32 19 -76
32 20 -76
32 21 -76
32 22 -76
32 23 -76
32 24 -76
32 25 -76
32 25 127
32 26 -76
32 27 -76
32 28 -76
32 29 -77
32 30 -77
32 31 -78
32 32 -79
32 33 -81
32 34 -84
32 35 -85
32 36 -85
32 37 -84
32 38 -83
32 39 -84
32 40 -85
32 41 -84
32 42 -82
32 43 -83
32 44 -83
32 45 -82
32 46 -88
32 46 -83
32 47 -91
32 48 -92
32 49 -93
32 50 -93
32 51 -92
32 52 -92
32 53 -92
32 53 -89
32 53 91
32 53 107
32 53 121
32 54 -89
32 54 92
32 54 108
32 55 -90
32 55 -83
32 55 89
32 55 95
32 55 108
32 55 118
32 56 -92
32 56 -88
32 56 -82
32 56 89
32 56 95
32 56 108
32 57 -81
32 57 85
32 57 97
32 57 109
32 58 -81
32 58 85
32 58 111
32 59 -95
32 59 -93
32 59 -87
32 59 -80
32 59 59
32 59 63
32 59 79
32 60 -96
32 60 -93
32 60 -90
32 60 -80
32 60 64
32 60 79
32 61 -97
32 61 -91
32 61 -80
32 61 65
32 61 73
32 61 79
32 62 -97
32 62 -91
32 62 -80
32 62 66
32 62 74
32 63 -97
32 63 -80
32 63 75
32 64 -96
32 64 -80
32 64 78
32 65 -95
32 65 -81
32 66 -96
32 66 -81
32 67 -96
32 67 -81
32 68 -96
32 69 -96
32 70 -95
32 71 -100
32 71 -95
32 72 -102
32 72 -97
32 72 -95
32 73 -102
32 74 -103
32 75 -102
32 75 -99
32 76 -98
32 77 -98
32 78 -98
32 78 -76
32 79 -98
32 79 -72
32 80 -102
32 80 -99
32 80 -71
32 80 -61
32 81 -103
32 81 -101
32 81 -58
32 82 -102
32 82 -56
32 82 -44
32 82 -35
32 83 -101
32 83 -98
32 83 -55
32 83 -44
32 83 -33
32 83 -28
32 84 -96
32 84 -53
32 84 -43
32 84 -27
32 85 -94
32 85 -52
32 85 -26
32 85 66
32 86 -98
32 86 -93
32 86 -26
32 86 66
32 87 -93
32 87 -90
32 87 -88
32 87 -25
32 87 66
32 87 71
32 88 -90
32 88 -88
32 88 -25
32 88 47
32 88 66
32 88 71
32 89 -88
32 89 -25
32 89 47
32 89 64
32 89 66
32 90 -25
32 90 48
32 90 64
32 91 -25
32 91 48
32 91 65
32 92 -25
32 92 -4
32 92 48
32 93 -25
32 93 -3
32 93 4
32 93 26
32 93 40
32 93 48
32 94 -25
32 94 -3
32 94 3
32 94 29
32 94 40
32 94 48
32 95 -25
32 95 3
32 95 34
32 95 41
32 95 48
32 96 -26
32 96 6
32 96 36
32 96 38
32 96 42
32 96 48
32 97 -26
32 97 37
32 97 48
32 98 -29
32 98 47
32 99 -30
32 99 38
32 99 46
32 99 74
32 100 -30
32 100 38
32 100 45
32 101 -37
32 101 -32
32 101 38
32 102 -37
32 102 -33
32 102 40
32 103 -40
32 103 -37
32 103 -34
32 103 41
32 104 -39
32 104 40
32 105 -40
32 105 42
32 106 -40
32 106 42
32 106 44
32 106 51
32 107 -39
32 107 -3
32 107 44
32 107 52
32 108 -39
32 108 -3
32 108 47
32 108 52
32 109 -37
32 109 -3
32 109 53
32 110 -36
32 110 -33
32 110 53
32 111 -36
32 111 -34
32 111 53
32 112 -34
32 112 54
32 113 -34
32 113 53
32 114 -32
32 114 53
32 114 60
32 115 -32
32 115 53
32 115 64
32 116 -31
32 116 -7
32 116 54
32 116 65
32 117 -31
32 117 -6
32 117 67
32 118 -31
32 119 -31
32 120 -32
32 121 -33
32 122 -31
32 123 -31
32 124 -30
32 125 -30
32 126 -30
32 127 -31
32 127 -11
33 -128 -32
33 -127 -31
33 -126 -31
33 -125 -30
33 -124 -30
33 -123 -30
33 -122 -30
33 -121 -30
33 -120 -30
33 -119 -31
33 -118 -31
33 -117 -31
33 -117 -6
33 -117 67
33 -116 -31
33 -116 -7
33 -116 54
33 -116 65
33 -115 -33
33 -115 54
33 -115 64
33 -114 -33
33 -114 53
33 -114 57
33 -114 61
33 -113 -34
33 -113 54
33 -112 -34
33 -112 54
33 -112 73
33 -111 -33
33 -111 54
33 -110 -33
33 -110 53
33 -109 -36
33 -109 -4
33 -109 53
33 -108 -39
33 -108 -3
33 -108 52
33 -107 -39
33 -107 -3
33 -107 44
33 -107 46
33 -107 52
33 -106 -40
33 -106 -2
33 -106 42
33 -106 44
33 -106 52
33 -105 -40
33 -105 42
33 -104 -39
33 -104 41
33 -104 73
33 -103 -39
33 -103 -37
33 -103 -34
33 -103 41
33 -102 -33
33 -102 40
33 -101 -32
33 -101 38
33 -100 -30
33 -100 38
33 -100 45
33 -99 -29
33 -99 38
33 -99 46
33 -99 71
33 -98 -29
33 -98 47
33 -98 71
33 -97 -26
33 -97 4
33 -97 42
33 -97 48
33 -96 -26
33 -96 2
33 -96 4
33 -96 35
33 -96 41
33 -96 49
33 -95 -25
33 -95 2
33 -95 33
33 -95 49
33 -94 -25
33 -94 -4
33 -94 3
33 -94 30
33 -94 49
33 -93 -24
33 -93 -4
33 -93 2
33 -93 23
33 -93 49
33 -92 -24
33 -92 -4
33 -92 20
33 -92 49
33 -91 -24
33 -91 49
33 -90 -24
33 -90 48
33 -89 -86
33 -89 -25
33 -89 48
33 -89 67
33 -88 -88
33 -88 -25
33 -88 48
33 -88 67
33 -87 -94
33 -87 -92
33 -87 -90
33 -87 -88
33 -87 -25
33 -86 -93
33 -86 -90
33 -86 -54
33 -86 -25
33 -85 -94
33 -85 -54
33 -85 -40
33 -85 -26
33 -84 -95
33 -84 -54
33 -84 -43
33 -84 -27
33 -83 -101
33 -83 -96
33 -83 -55
33 -83 -43
33 -83 -33
33 -83 -28
33 -82 -102
33 -82 -56
33 -82 -44
33 -81 -102
33 -81 -57
33 -80 -101
33 -80 -99
33 -80 -72
33 -80 -61
33 -79 -99
33 -79 -72
33 -78 -98
33 -78 -76
33 -77 -98
33 -76 -98
33 -75 -101
33 -75 -98
33 -74 -102
33 -74 -97
33 -73 -103
33 -73 -93
33 -72 -102
33 -72 -98
33 -72 -92
33 -71 -92
33 -70 -93
33 -69 -95
33 -68 -95
33 -68 -82
33 -67 -95
33 -67 -82
33 -66 -93
33 -66 -81
33 -65 -94
33 -65 -81
33 -64 -94
33 -64 -81
33 -63 -94
33 -63 -90
33 -63 -80
33 -63 75
33 -63 81
33 -62 -96
33 -62 -94
33 -62 -88
33 -62 -80
33 -62 73
33 -61 -80
33 -61 65
33 -61 73
33 -60 -81
33 -60 64
33 -60 79
33 -59 -81
33 -59 60
33 -59 64
33 -59 85
33 -59 110
33 -58 -81
33 -58 59
33 -58 85
33 -58 93
33 -58 96
33 -58 108
33 -57 -82
33 -57 85
33 -57 88
33 -57 92
33 -57 95
33 -57 107
33 -56 -88
33 -56 -83
33 -56 88
33 -56 92
33 -56 109
33 -55 -89
33 -55 -83
33 -55 89
33 -55 92
33 -55 109
33 -54 -88
33 -54 -84
33 -54 90
33 -54 108
33 -53 -89
33 -53 107
33 -53 121
33 -52 -90
33 -51 -91
33 -50 -91
33 -49 -91
33 -48 -91
33 -47 -91
33 -46 -89
33 -45 -88
33 -45 -84
33 -44 -88
33 -44 -84
33 -43 -84
33 -42 -84
33 -41 -84
33 -40 -84
33 -39 -83
33 -38 -82
33 -37 -85
33 -36 -85
33 -35 -84
33 -34 -82
33 -33 -80
33 -32 -79
33 -32 126
33 -31 -78
33 -30 -77
33 -29 -77
33 -28 -76
33 -27 -76
33 -26 -76
33 -25 -76
33 -24 -76
33 -23 -76
33 -22 -76
33 -21 -76
33 -20 -76
33 -19 -76
33 -18 -76
33 -17 -76
33 -16 -76
33 -15 -76
33 -14 -76
33 -13 -76
33 -12 -76
33 -11 -76
33 -10 -77
33 -10 125
33 -9 -77
33 -9 120
33 -9 122
33 -8 -77
33 -8 120
33 -7 -84
33 -7 -79
33 -7 119
33 -6 -93
33 -6 -84
33 -6 -79
33 -6 118
33 -5 -93
33 -5 -89
33 -5 -85
33 -5 -80
33 -4 -93
33 -4 -85
33 -3 -93
33 -3 -85
33 -3 115
33 -2 -99
33 -2 -93
33 -2 -85
33 -2 115
33 -1 -106
33 -1 -101
33 -1 -94
33 0 -107
33 0 -105
33 0 -101
33 0 -93
33 1 -106
33 1 -101
33 1 -94
33 2 -99
33 2 -93
33 2 -85
33 2 115
33 3 -93
33 3 -85
33 3 115
33 4 -93
33 4 -85
33 5 -93
33 5 -89
33 5 -85
33 5 -80
33 6 -93
33 6 -84
33 6 -79
33 6 118
33 7 -84
33 7 -79
33 7 119
33 8 -77
33 8 120
33 9 -77
33 9 120
33 9 122
33 10 -77
33 10 125
33 11 -76
33 12 -76
33 13 -76
33 14 -76
33 15 -76
33 16 -76
33 17 -76
33 18 -76
33 19 -76
33 20 -76
33 21 -76
33 22 -76
33 23 -76
33 24 -76
33 25 -76
33 26 -76
33 27 -76
33 28 -76
33 29 -77
33 30 -77
33 31 -78
33 32 -79
33 32 126
33 33 -80
33 34 -82
33 35 -84
33 36 -85
33 37 -85
33 38 -82
33 39 -83
33 40 -84
33 41 -84
33 42 -84
33 43 -84
33 44 -88
33 44 -84
33 45 -88
33 45 -84
33 46 -89
33 47 -91
33 48 -91
33 49 -91
33 50 -91
33 51 -91
33 52 -90
33 53 -89
33 53 107
33 53 121
33 54 -88
33 54 -84
33 54 90
33 54 108
33 55 -89
33 55 -83
33 55 89
33 55 92
33 55 109
33 56 -88
33 56 -83
33 56 88
33 56 92
33 56 109
33 57 -82
33 57 85
33 57 88
33 57 92
33 57 95
33 57 107
33 58 -81
33 58 59
33 58 85
33 58 93
33 58 96
33 58 108
33 59 -81
33 59 60
33 59 64
33 59 85
33 59 110
33 60 -81
33 60 64
33 60 79
33 61 -80
33 61 65
33 61 73
33 62 -96
33 62 -94
33 62 -88
33 62 -80
33 62 73
33 63 -94
33 63 -90
33 63 -80
33 63 75
33 63 81
33 64 -94
33 64 -81
33 65 -94
33 65 -81
33 66 -93
33 66 -81
33 67 -95
33 67 -82
33 68 -95
33 68 -82
33 69 -95
33 70 -93
33 71 -92
33 72 -102
33 72 -98
33 72 -92
33 73 -103
33 73 -93
33 74 -102
33 74 -97
33 75 -101
33 75 -98
33 76 -98
33 77 -98
33 78 -98
33 78 -76
33 79 -99
33 79 -72
33 80 -101
33 80 -99
33 80 -72
33 80 -61
33 81 -102
33 81 -57
33 82 -102
33 82 -56
33 82 -44
33 83 -101
33 83 -96
33 83 -55
33 83 -43
33 83 -33
33 83 -28
33 84 -95
33 84 -54
33 84 -43
33 84 -27
33 85 -94
33 85 -54
33 85 -40
33 85 -26
33 86 -93
33 86 -90
33 86 -54
33 86 -25
33 87 -94
33 87 -92
33 87 -90
33 87 -88
33 87 -25
33 88 -88
33 88 -25
33 88 48
33 88 67
33 89 -86
33 89 -25
33 89 48
33 89 67
33 90 -24
33 90 48
33 91 -24
33 91 49
33 92 -24
33 92 -4
33 92 20
33 92 49
33 93 -24
33 93 -4
33 93 2
33 93 23
33 93 49
33 94 -25
33 94 -4
33 94 3
33 94 30
33 94 49
33 95 -25
33 95 2
